# .PCD v0.7 - Point Cloud Data file format
VERSION 0.7
FIELDS x y z intensity tag line timestamp
SIZE 4 4 4 4 1 1 8
TYPE F F F F U U F
COUNT 1 1 1 1 1 1 1
WIDTH 1047
HEIGHT 1
VIEWPOINT 0 0 0 1 0 0 0
POINTS 1047
DATA ascii
4.1069999 -11.286 7.2659998 29 0 3 1.7057334e+18
1.971 -3.743 2.563 22 0 0 1.7057334e+18
5.085 -10.65 7.1550002 24 0 1 1.7057334e+18
4.6129999 -10.691 7.0489998 7 0 2 1.7057334e+18
4.348 -11.185 7.2550001 25 0 3 1.7057334e+18
2.0769999 -3.737 2.599 18 0 0 1.7057334e+18
1.89 -3.7420001 2.5469999 13 0 1 1.7057334e+18
4.9250002 -10.76 7.1669998 25 0 2 1.7057334e+18
4.5749998 -11.059 7.2270002 10 0 3 1.7057334e+18
2.1849999 -3.7279999 2.6370001 17 0 0 1.7057334e+18
1.9960001 -3.7420001 2.5829999 16 0 1 1.7057334e+18
5.1350002 -10.598 7.1370001 27 0 2 1.7057334e+18
4.757 -10.823 7.1339998 22 0 3 1.7057334e+18
2.2909999 -3.7149999 2.6730001 16 0 0 1.7057334e+18
2.099 -3.7320001 2.612 16 0 1 1.7057334e+18
1.916 -3.744 2.55 17 0 2 1.7057334e+18
5.0159998 -10.773 7.164 22 0 3 1.7057334e+18
2.4000001 -3.7 2.711 17 0 0 1.7057334e+18
2.2 -3.7160001 2.6400001 16 0 1 1.7057334e+18
2.0239999 -3.7460001 2.5840001 17 0 2 1.7057334e+18
5.2259998 -10.608 7.1240001 26 0 3 1.7057334e+18
2.5109999 -3.6849999 2.7520001 14 0 0 1.7057334e+18
2.312 -3.7130001 2.681 16 0 1 1.7057334e+18
2.125 -3.734 2.609 16 0 2 1.7057334e+18
1.948 -3.7460001 2.54 22 0 3 1.7057334e+18
2.632 -3.6800001 2.802 16 0 0 1.7057334e+18
2.4159999 -3.694 2.711 16 0 1 1.7057334e+18
2.2279999 -3.7219999 2.6359999 15 0 2 1.7057334e+18
2.05 -3.74 2.5639999 21 0 3 1.7057334e+18
2.747 -3.664 2.845 15 0 0 1.7057334e+18
2.5250001 -3.6789999 2.747 15 0 1 1.7057334e+18
2.3329999 -3.711 2.665 16 0 2 1.7057334e+18
2.152 -3.7320001 2.5869999 20 0 3 1.7057334e+18
2.862 -3.6429999 2.8889999 7 0 0 1.7057334e+18
2.6429999 -3.675 2.7909999 16 0 1 1.7057334e+18
2.4360001 -3.6919999 2.6889999 16 0 2 1.7057334e+18
2.2539999 -3.7190001 2.609 18 0 3 1.7057334e+18
6.9320002 -8.4329996 6.8299999 34 0 0 1.7057334e+18
2.753 -3.654 2.8269999 15 0 1 1.7057334e+18
2.5469999 -3.6819999 2.723 16 0 2 1.7057334e+18
2.3610001 -3.7090001 2.6340001 19 0 3 1.7057334e+18
7.0679998 -8.217 6.8049998 7 0 0 1.7057334e+18
2.869 -3.638 2.8670001 6 0 1 1.7057334e+18
2.6659999 -3.678 2.7650001 16 0 2 1.7057334e+18
2.467 -3.6949999 2.6589999 18 0 3 1.7057334e+18
0 0 0 0 0 0 1.7057334e+18
7.0050001 -8.4879999 6.8260002 33 0 1 1.7057334e+18
2.776 -3.6559999 2.7950001 15 0 2 1.7057334e+18
2.582 -3.688 2.6930001 18 0 3 1.7057334e+18
0 0 0 0 0 0 1.7057334e+18
7.151 -8.283 6.7989998 1 0 1 1.7057334e+18
2.8929999 -3.642 2.8329999 3 0 2 1.7057334e+18
2.6919999 -3.671 2.72 19 0 3 1.7057334e+18
7.4380002 -7.5549998 6.7249999 32 0 0 1.7057334e+18
7.2639999 -8.0489998 6.7490001 5 0 1 1.7057334e+18
7.152 -8.6049995 6.8189998 4 0 2 1.7057334e+18
2.8080001 -3.658 2.7520001 16 0 3 1.7057334e+18
7.5599999 -7.3470001 6.7080002 26 0 0 1.7057334e+18
7.4219999 -7.8660002 6.7449999 31 0 1 1.7057334e+18
7.2610002 -8.3559999 6.7490001 2 0 2 1.7057334e+18
7.1550002 -8.9069996 6.809 3 0 3 1.7057334e+18
7.6659999 -7.1300001 6.6820002 31 0 0 1.7057334e+18
7.5500002 -7.6599998 6.7179999 30 0 1 1.7057334e+18
7.4419999 -8.1929998 6.7490001 34 0 2 1.7057334e+18
7.3200002 -8.7130003 6.7740002 2 0 3 1.7057334e+18
7.776 -6.9159999 6.6620002 29 0 0 1.7057334e+18
7.6700001 -7.447 6.6880002 31 0 1 1.7057334e+18
7.5939999 -8 6.7270002 31 0 2 1.7057334e+18
7.5009999 -8.5360003 6.7579999 36 0 3 1.7057334e+18
7.8800001 -6.704 6.645 31 0 0 1.7057334e+18
7.7969999 -7.2420001 6.6700001 31 0 1 1.7057334e+18
7.7340002 -7.7940001 6.6989999 37 0 2 1.7057334e+18
7.665 -8.342 6.7290001 32 0 3 1.7057334e+18
7.9720001 -6.4840002 6.6209998 33 0 0 1.7057334e+18
7.9130001 -7.0310001 6.6459999 34 0 1 1.7057334e+18
7.8649998 -7.585 6.6680002 35 0 2 1.7057334e+18
7.8239999 -8.1459999 6.7010002 27 0 3 1.7057334e+18
8.0749998 -6.276 6.6090002 33 0 0 1.7057334e+18
8.0209999 -6.8179998 6.619 34 0 1 1.7057334e+18
8.0050001 -7.3850002 6.6490002 33 0 2 1.7057334e+18
7.9710002 -7.9400001 6.6659999 29 0 3 1.7057334e+18
8.1499996 -6.053 6.579 4 0 0 1.7057334e+18
8.1440001 -6.619 6.6100001 29 0 1 1.7057334e+18
8.1350002 -7.1799998 6.6240001 39 0 2 1.7057334e+18
8.1309996 -7.7459998 6.6459999 36 0 3 1.7057334e+18
0 0 0 0 0 0 1.7057334e+18
0 0 0 0 0 1 1.7057334e+18
8.2480001 -6.9629998 6.5910001 3 0 2 1.7057334e+18
8.2790003 -7.5440001 6.6209998 17 0 3 1.7057334e+18
0 0 0 0 0 0 1.7057334e+18
0 0 0 0 0 1 1.7057334e+18
0 0 0 0 0 2 1.7057334e+18
0 0 0 0 0 3 1.7057334e+18
8.401 -5.4239998 6.5370002 19 0 0 1.7057334e+18
8.4499998 -5.9899998 6.5539999 12 0 1 1.7057334e+18
0 0 0 0 0 2 1.7057334e+18
0 0 0 0 0 3 1.7057334e+18
4.3060002 -2.6489999 3.3139999 3 0 0 1.7057334e+18
4.3280001 -2.928 3.3110001 5 0 1 1.7057334e+18
4.3769999 -3.224 3.3210001 3 0 2 1.7057334e+18
4.4200001 -3.517 3.3269999 1 0 3 1.7057334e+18
4.3080001 -2.5220001 3.2809999 1 4 0 1.7057334e+18
8.6330004 -5.5710001 6.5190001 24 0 1 1.7057334e+18
8.7209997 -6.1300001 6.513 31 0 2 1.7057334e+18
8.8260002 -6.7069998 6.5209999 39 0 3 1.7057334e+18
8.5900002 -4.783 6.48 28 0 0 1.7057334e+18
8.7030001 -5.349 6.4910002 37 0 1 1.7057334e+18
8.8240004 -5.9159999 6.4910002 29 0 2 1.7057334e+18
8.9379997 -6.4809999 6.487 6 0 3 1.7057334e+18
8.6459999 -4.573 6.4619999 35 0 0 1.7057334e+18
8.7810001 -5.1370001 6.473 13 0 1 1.7057334e+18
8.9099998 -5.691 6.461 3 0 2 1.7057334e+18
4.3369999 -2.9990001 3.0940001 1 0 3 1.7057334e+18
8.7200003 -4.3720002 6.461 5 0 0 1.7057334e+18
8.8009996 -4.8930001 6.4159999 4 0 1 1.7057334e+18
4.303 -2.6159999 3.0780001 1 0 2 1.7057334e+18
4.349 -2.865 3.053 1 0 3 1.7057334e+18
8.7299995 -4.145 6.4169998 3 0 0 1.7057334e+18
4.2670002 -2.2520001 3.0769999 1 0 1 1.7057334e+18
4.3080001 -2.49 3.0409999 2 0 2 1.7057334e+18
4.3200002 -2.7079999 2.9849999 1 0 3 1.7057334e+18
7.3959999 -3.3169999 5.395 8 0 0 1.7057334e+18
4.263 -2.1329999 3.0439999 4 0 1 1.7057334e+18
4.289 -2.3540001 2.99 3 0 2 1.7057334e+18
4.316 -2.573 2.938 1 0 3 1.7057334e+18
4.2280002 -1.788 3.062 1 0 0 1.7057334e+18
4.2680001 -2.02 3.0179999 2 0 1 1.7057334e+18
4.2859998 -2.2309999 2.9530001 1 0 2 1.7057334e+18
8.6070004 -4.8709998 5.777 19 0 3 1.7057334e+18
4.211 -1.676 3.0309999 3 0 0 1.7057334e+18
4.2360001 -1.892 2.9690001 2 0 1 1.7057334e+18
4.256 -2.0969999 2.8989999 2 0 2 1.7057334e+18
4.277 -2.2950001 2.832 2 0 3 1.7057334e+18
4.2179999 -1.574 3.0179999 1 0 0 1.7057334e+18
4.2399998 -1.785 2.947 1 4 1 1.7057334e+18
4.2709999 -1.987 2.8789999 1 4 2 1.7057334e+18
4.2740002 -2.171 2.793 2 4 3 1.7057334e+18
4.2129998 -1.471 2.9979999 1 4 0 1.7057334e+18
4.2329998 -1.674 2.9200001 1 4 1 1.7057334e+18
4.2360001 -1.857 2.8269999 3 0 2 1.7057334e+18
4.257 -2.0409999 2.7479999 3 0 3 1.7057334e+18
4.197 -1.365 2.971 2 0 0 1.7057334e+18
4.2090001 -1.559 2.8829999 1 0 1 1.7057334e+18
4.2210002 -1.74 2.7909999 1 4 2 1.7057334e+18
4.2449999 -1.918 2.7090001 1 4 3 1.7057334e+18
4.1939998 -1.266 2.9549999 1 0 0 1.7057334e+18
4.197 -1.452 2.8540001 0 4 1 1.7057334e+18
4.2280002 -1.6339999 2.77 1 0 2 1.7057334e+18
4.2290001 -1.7970001 2.6689999 3 0 3 1.7057334e+18
4.165 -1.161 2.9219999 0 0 0 1.7057334e+18
4.1919999 -1.349 2.8329999 1 4 1 1.7057334e+18
4.21 -1.521 2.7349999 2 0 2 1.7057334e+18
4.2150002 -1.679 2.632 1 4 3 1.7057334e+18
4.1789999 -1.0700001 2.921 0 0 0 1.7057334e+18
4.1849999 -1.248 2.812 1 0 1 1.7057334e+18
4.1960001 -1.411 2.7049999 1 4 2 1.7057334e+18
4.197 -1.563 2.595 2 0 3 1.7057334e+18
4.1669998 -0.97299999 2.9030001 0 0 0 1.7057334e+18
4.171 -1.146 2.7880001 1 4 1 1.7057334e+18
4.1729999 -1.301 2.671 2 0 2 1.7057334e+18
4.184 -1.45 2.563 1 4 3 1.7057334e+18
4.1399999 -0.875 2.8759999 1 0 0 1.7057334e+18
4.1609998 -1.046 2.767 1 4 1 1.7057334e+18
4.171 -1.199 2.651 2 0 2 1.7057334e+18
4.177 -1.342 2.5369999 1 4 3 1.7057334e+18
4.1370001 -0.78299999 2.8670001 1 0 0 1.7057334e+18
4.1459999 -0.94700003 2.7449999 1 4 1 1.7057334e+18
4.1630001 -1.097 2.6300001 1 4 2 1.7057334e+18
4.1570001 -1.2309999 2.5050001 4 0 3 1.7057334e+18
4.1230001 -0.69099998 2.8510001 0 4 0 1.7057334e+18
4.131 -0.84899998 2.7249999 1 4 1 1.7057334e+18
4.1599998 -0.99699998 2.6129999 1 4 2 1.7057334e+18
4.1560001 -1.128 2.4849999 9 0 3 1.7057334e+18
4.0939999 -0.597 2.826 1 0 0 1.7057334e+18
4.119 -0.75400001 2.707 1 4 1 1.7057334e+18
4.1490002 -0.89700001 2.5929999 2 0 2 1.7057334e+18
4.131 -1.021 2.4530001 5 0 3 1.7057334e+18
4.1259999 -0.514 2.845 0 4 0 1.7057334e+18
4.1040001 -0.66000003 2.6889999 1 4 1 1.7057334e+18
4.1300001 -0.79699999 2.569 2 0 2 1.7057334e+18
4.0910001 -0.912 2.414 10 0 3 1.7057334e+18
4.098 -0.42300001 2.823 0 4 0 1.7057334e+18
4.0999999 -0.56800002 2.6800001 2 0 1 1.7057334e+18
4.1110001 -0.699 2.546 1 4 2 1.7057334e+18
4.02 -0.80000001 2.359 22 0 3 1.7057334e+18
4.1040001 -0.33700001 2.825 0 4 0 1.7057334e+18
4.0960002 -0.47799999 2.671 1 4 1 1.7057334e+18
4.0840001 -0.60000002 2.52 4 0 2 1.7057334e+18
3.9879999 -0.699 2.3269999 43 0 3 1.7057334e+18
4.085 -0.249 2.812 0 4 0 1.7057334e+18
4.0879998 -0.38800001 2.661 1 4 1 1.7057334e+18
4.1020002 -0.509 2.5239999 1 4 2 1.7057334e+18
3.9749999 -0.602 2.309 55 0 3 1.7057334e+18
4.0840001 -0.162 2.812 0 4 0 1.7057334e+18
4.0869999 -0.29800001 2.658 1 4 1 1.7057334e+18
4.0929999 -0.41600001 2.5109999 2 0 2 1.7057334e+18
3.9779999 -0.509 2.3010001 76 0 3 1.7057334e+18
4.0749998 -0.077 2.8080001 0 4 0 1.7057334e+18
4.1900001 -0.214 2.723 9 0 1 1.7057334e+18
4.086 -0.32300001 2.5009999 2 0 2 1.7057334e+18
3.973 -0.41499999 2.29 85 0 3 1.7057334e+18
4.0630002 0.0080000004 2.802 0 4 0 1.7057334e+18
4.21 -0.125 2.734 13 0 1 1.7057334e+18
4.0780001 -0.23100001 2.4920001 3 0 2 1.7057334e+18
3.9519999 -0.322 2.2709999 90 0 3 1.7057334e+18
4.0560002 0.092 2.8 1 4 0 1.7057334e+18
4.1820002 -0.033 2.7160001 12 0 1 1.7057334e+18
4.0580001 -0.139 2.477 3 0 2 1.7057334e+18
3.948 -0.23 2.2639999 88 0 3 1.7057334e+18
4.0419998 0.176 2.7950001 1 4 0 1.7057334e+18
4.1609998 0.057 2.704 10 0 1 1.7057334e+18
4.0570002 -0.046999998 2.4749999 3 0 2 1.7057334e+18
3.9389999 -0.138 2.2550001 98 0 3 1.7057334e+18
4.0300002 0.25999999 2.7939999 0 4 0 1.7057334e+18
4.1069999 0.145 2.671 5 0 1 1.7057334e+18
4.0380001 0.041999999 2.4630001 4 0 2 1.7057334e+18
3.9289999 -0.046 2.2460001 90 0 3 1.7057334e+18
4.0250001 0.34400001 2.7980001 1 4 0 1.7057334e+18
4.0780001 0.233 2.6570001 4 0 1 1.7057334e+18
4.0240002 0.133 2.4560001 3 0 2 1.7057334e+18
3.924 0.044 2.2420001 95 0 3 1.7057334e+18
4.0219998 0.428 2.803 0 4 0 1.7057334e+18
4.0339999 0.31799999 2.6329999 3 0 1 1.7057334e+18
4.0539999 0.22499999 2.477 9 0 2 1.7057334e+18
3.9100001 0.13500001 2.234 102 0 3 1.7057334e+18
4.0110002 0.51200002 2.8050001 1 4 0 1.7057334e+18
4.0349998 0.40599999 2.6389999 3 0 1 1.7057334e+18
4.0240002 0.31400001 2.461 8 0 2 1.7057334e+18
3.902 0.22499999 2.23 102 0 3 1.7057334e+18
4.0100002 0.59600002 2.8139999 1 4 0 1.7057334e+18
4.026 0.493 2.641 3 0 1 1.7057334e+18
4.0149999 0.40400001 2.4590001 4 0 2 1.7057334e+18
3.8959999 0.31600001 2.2290001 101 0 3 1.7057334e+18
4.0029998 0.68000001 2.8199999 1 4 0 1.7057334e+18
4.0009999 0.57800001 2.632 4 0 1 1.7057334e+18
4.152 0.51300001 2.55 15 1 2 1.7057334e+18
3.888 0.40599999 2.2279999 102 0 3 1.7057334e+18
3.9790001 0.76200002 2.8150001 1 0 0 1.7057334e+18
3.9849999 0.66399997 2.631 3 0 1 1.7057334e+18
4.0029998 0.58600003 2.4649999 8 0 2 1.7057334e+18
3.878 0.49700001 2.2279999 104 0 3 1.7057334e+18
3.97 0.84500003 2.822 2 0 0 1.7057334e+18
3.9760001 0.75099999 2.6359999 3 0 1 1.7057334e+18
3.9719999 0.67400002 2.4549999 4 0 2 1.7057334e+18
3.869 0.58899999 2.2279999 109 0 3 1.7057334e+18
3.973 0.93400002 2.8399999 1 0 0 1.7057334e+18
3.9579999 0.838 2.6359999 4 0 1 1.7057334e+18
4.151 0.801 2.576 18 1 2 1.7057334e+18
3.8659999 0.68199998 2.2349999 105 0 3 1.7057334e+18
3.971 1.02 2.8529999 1 0 0 1.7057334e+18
3.9719999 0.93099999 2.658 2 0 1 1.7057334e+18
3.9549999 0.85600001 2.4649999 8 0 2 1.7057334e+18
3.852 0.77200001 2.2360001 101 0 3 1.7057334e+18
3.967 1.107 2.8670001 1 0 0 1.7057334e+18
3.9579999 1.017 2.6619999 1 0 1 1.7057334e+18
3.9660001 0.95099998 2.484 3 0 2 1.7057334e+18
3.8510001 0.86500001 2.2449999 101 0 3 1.7057334e+18
3.9630001 1.194 2.882 2 0 0 1.7057334e+18
3.9430001 1.1059999 2.6689999 2 0 1 1.7057334e+18
4.1069999 1.084 2.5869999 14 0 2 1.7057334e+18
3.849 0.95999998 2.2550001 102 0 3 1.7057334e+18
3.9389999 1.277 2.8840001 2 0 0 1.7057334e+18
3.9530001 1.201 2.6919999 2 0 1 1.7057334e+18
4.0830002 1.177 2.5880001 12 0 2 1.7057334e+18
3.825 1.05 2.2539999 58 0 3 1.7057334e+18
3.9400001 1.367 2.905 3 0 0 1.7057334e+18
3.934 1.289 2.698 1 4 1 1.7057334e+18
4.0890002 1.279 2.609 13 0 2 1.7057334e+18
3.8280001 1.148 2.2720001 47 0 3 1.7057334e+18
3.9159999 1.452 2.9100001 2 0 0 1.7057334e+18
3.928 1.3839999 2.714 1 4 1 1.7057334e+18
4.0710001 1.377 2.6170001 12 0 2 1.7057334e+18
3.846 1.2539999 2.299 25 0 3 1.7057334e+18
3.8889999 1.534 2.9130001 1 0 0 1.7057334e+18
3.9330001 1.482 2.7390001 1 4 1 1.7057334e+18
4.0450001 1.471 2.622 12 0 2 1.7057334e+18
3.862 1.3609999 2.3269999 18 0 3 1.7057334e+18
3.8840001 1.626 2.9330001 0 4 0 1.7057334e+18
3.908 1.5700001 2.744 1 4 1 1.7057334e+18
4.0419998 1.574 2.642 12 0 2 1.7057334e+18
3.9059999 1.479 2.3740001 11 0 3 1.7057334e+18
8.04 3.5599999 6.1240001 2 0 0 1.7057334e+18
3.8989999 1.664 2.7609999 1 4 1 1.7057334e+18
3.961 1.645 2.6110001 4 0 2 1.7057334e+18
3.895 1.581 2.3889999 5 0 3 1.7057334e+18
7.9910002 3.7379999 6.145 6 0 0 1.7057334e+18
3.902 1.766 2.79 1 4 1 1.7057334e+18
3.904 1.727 2.599 2 0 2 1.7057334e+18
3.918 1.699 2.4260001 10 0 3 1.7057334e+18
7.9429998 3.9170001 6.1669998 18 0 0 1.7057334e+18
3.8940001 1.8660001 2.813 2 0 1 1.7057334e+18
3.8889999 1.827 2.6159999 2 0 2 1.7057334e+18
3.9489999 1.825 2.473 15 0 3 1.7057334e+18
7.875 4.0879998 6.1760001 25 0 0 1.7057334e+18
3.888 1.9680001 2.8380001 2 0 1 1.7057334e+18
3.8870001 1.9349999 2.6440001 2 0 2 1.7057334e+18
3.9300001 1.9299999 2.4890001 14 0 3 1.7057334e+18
7.7919998 4.2540002 6.1789999 32 0 0 1.7057334e+18
3.8699999 2.066 2.8570001 3 0 1 1.7057334e+18
3.869 2.0380001 2.6630001 1 0 2 1.7057334e+18
3.9100001 2.036 2.507 3 0 3 1.7057334e+18
7.3280001 4.1989999 5.8769999 5 0 0 1.7057334e+18
3.8599999 2.1700001 2.882 3 0 1 1.7057334e+18
3.8599999 2.1459999 2.6889999 1 4 2 1.7057334e+18
3.8559999 2.1259999 2.5050001 1 0 3 1.7057334e+18
3.8640001 2.322 3.135 0 0 0 1.7057334e+18
3.8280001 2.263 2.895 1 0 1 1.7057334e+18
3.849 2.2550001 2.7160001 1 4 2 1.7057334e+18
3.8329999 2.2320001 2.523 1 4 3 1.7057334e+18
3.826 2.4070001 3.142 1 0 0 1.7057334e+18
3.832 2.3789999 2.9349999 3 0 1 1.7057334e+18
3.8139999 2.3529999 2.7290001 4 0 2 1.7057334e+18
3.8150001 2.3440001 2.5480001 3 0 3 1.7057334e+18
6.2589998 4.1220002 5.2059999 3 0 0 1.7057334e+18
7.8660002 5.1230001 6.1059999 5 0 1 1.7057334e+18
3.835 2.4879999 2.7839999 1 0 2 1.7057334e+18
3.839 2.487 2.6040001 1 4 3 1.7057334e+18
7.3860002 5.086 6.2259998 3 0 0 1.7057334e+18
7.7680001 5.3049998 6.118 24 0 1 1.7057334e+18
3.8340001 2.6129999 2.825 2 0 2 1.7057334e+18
3.8269999 2.6099999 2.6389999 1 4 3 1.7057334e+18
7.2309999 5.204 6.1820002 1 0 0 1.7057334e+18
7.6869998 5.5 6.1459999 28 0 1 1.7057334e+18
3.823 2.737 2.865 4 0 2 1.7057334e+18
3.8099999 2.734 2.6730001 1 4 3 1.7057334e+18
7.1279998 5.3590002 6.184 2 0 0 1.7057334e+18
3.8050001 2.8499999 3.0899999 1 4 1 1.7057334e+18
3.7839999 2.842 2.8829999 1 0 2 1.7057334e+18
3.8050001 2.8710001 2.7179999 1 4 3 1.7057334e+18
7.0539999 5.5359998 6.2119999 14 0 0 1.7057334e+18
3.7839999 2.9649999 3.1240001 1 4 1 1.7057334e+18
7.8010001 6.1430001 6.0510001 4 0 2 1.7057334e+18
3.802 3.0120001 2.7679999 1 0 3 1.7057334e+18
6.941 5.6820002 6.2090001 31 0 0 1.7057334e+18
7.349 6.0209999 6.1700001 5 0 1 1.7057334e+18
7.7020001 6.3499999 6.0819998 16 0 2 1.7057334e+18
3.77 3.135 2.8 1 0 3 1.7057334e+18
6.8400002 5.842 6.2220001 34 0 0 1.7057334e+18
7.2750001 6.2290001 6.217 2 0 1 1.7057334e+18
7.586 6.553 6.1090002 25 0 2 1.7057334e+18
3.7650001 3.2839999 2.855 3 0 3 1.7057334e+18
6.7360001 5.9990001 6.2340002 32 0 0 1.7057334e+18
7.0609999 6.3179998 6.1479998 2 0 1 1.7057334e+18
3.7639999 3.404 3.0929999 1 4 2 1.7057334e+18
7.743 7.0890002 6.0050001 1 0 3 1.7057334e+18
6.6110001 6.1389999 6.2290001 34 0 0 1.7057334e+18
6.9439998 6.494 6.1680002 15 0 1 1.7057334e+18
3.7320001 3.5339999 3.1340001 0 4 2 1.7057334e+18
7.6149998 7.3150001 6.0450001 13 0 3 1.7057334e+18
6.5019999 6.296 6.243 33 0 0 1.7057334e+18
6.8179998 6.6620002 6.1830001 33 0 1 1.7057334e+18
7.1700001 7.1110001 6.1599998 3 0 2 1.7057334e+18
7.4829998 7.5380001 6.086 30 0 3 1.7057334e+18
6.381 6.4429998 6.2490001 34 0 0 1.7057334e+18
6.6849999 6.8239999 6.1939998 40 0 1 1.7057334e+18
6.9640002 7.2290001 6.125 1 0 2 1.7057334e+18
3.7 3.9100001 3.0880001 3 0 3 1.7057334e+18
6.2579999 6.5869999 6.2550001 34 0 0 1.7057334e+18
6.5489998 6.987 6.2059999 40 0 1 1.7057334e+18
6.829 7.4219999 6.1560001 21 0 2 1.7057334e+18
7.145 7.9190001 6.1240001 5 0 3 1.7057334e+18
6.1430001 6.7420001 6.2719998 31 0 0 1.7057334e+18
6.4109998 7.145 6.217 33 0 1 1.7057334e+18
6.6739998 7.5939999 6.1719999 33 0 2 1.7057334e+18
0 0 0 0 0 3 1.7057334e+18
6.007 6.875 6.27 34 0 0 1.7057334e+18
6.2589998 7.2919998 6.2220001 37 0 1 1.7057334e+18
6.5050001 7.7529998 6.1799998 36 0 2 1.7057334e+18
6.7410002 8.2299995 6.1220002 19 0 3 1.7057334e+18
5.8969998 7.0430002 6.302 14 0 0 1.7057334e+18
6.1129999 7.4460001 6.2350001 36 0 1 1.7057334e+18
6.3400002 7.9190001 6.198 35 0 2 1.7057334e+18
6.5669999 8.4200001 6.152 32 0 3 1.7057334e+18
0 0 0 0 0 0 1.7057334e+18
5.9640002 7.598 6.2480001 35 0 1 1.7057334e+18
6.1609998 8.0699997 6.2069998 37 0 2 1.7057334e+18
6.3759999 8.5930004 6.1719999 33 0 3 1.7057334e+18
0 0 0 0 0 0 1.7057334e+18
5.8390002 7.7870002 6.2919998 14 0 1 1.7057334e+18
5.9920001 8.2349997 6.2270002 39 0 2 1.7057334e+18
6.164 8.7390003 6.178 39 0 3 1.7057334e+18
5.4759998 7.4450002 6.316 32 0 0 1.7057334e+18
0 0 0 0 0 1 1.7057334e+18
5.8179998 8.3940001 6.2470002 35 0 2 1.7057334e+18
5.9679999 8.9049997 6.1999998 34 0 3 1.7057334e+18
5.335 7.5809999 6.3280001 37 0 0 1.7057334e+18
0 0 0 0 0 1 1.7057334e+18
0 0 0 0 0 2 1.7057334e+18
5.7680001 9.0670004 6.2249999 34 0 3 1.7057334e+18
5.191 7.7160001 6.3379998 37 0 0 1.7057334e+18
5.3260002 8.177 6.3010001 39 0 1 1.7057334e+18
0 0 0 0 0 2 1.7057334e+18
2.154 3.573 2.4200001 14 0 3 1.7057334e+18
5.0409999 7.8470001 6.348 42 0 0 1.7057334e+18
5.1570001 8.3120003 6.3119998 37 0 1 1.7057334e+18
2.138 3.5910001 2.5599999 17 0 2 1.7057334e+18
2.04 3.573 2.3900001 20 0 3 1.7057334e+18
4.902 7.9949999 6.375 29 0 0 1.7057334e+18
2.122 3.596 2.6930001 17 0 1 1.7057334e+18
2.0190001 3.575 2.516 16 0 2 1.7057334e+18
1.921 3.562 2.355 21 0 3 1.7057334e+18
2.1040001 3.6010001 2.8299999 17 0 0 1.7057334e+18
2.0079999 3.5810001 2.6470001 17 0 1 1.7057334e+18
1.91 3.572 2.484 17 0 2 1.7057334e+18
1.809 3.556 2.326 14 0 3 1.7057334e+18
1.9960001 3.5899999 2.7839999 19 0 0 1.7057334e+18
1.901 3.573 2.608 17 0 1 1.7057334e+18
1.7970001 3.556 2.4449999 17 0 2 1.7057334e+18
4.6890001 9.79 6.3379998 31 0 3 1.7057334e+18
1.892 3.579 2.7390001 19 0 0 1.7057334e+18
1.794 3.562 2.569 17 0 1 1.7057334e+18
1.687 3.5380001 2.4070001 16 0 2 1.7057334e+18
4.461 9.9110003 6.3559999 32 0 3 1.7057334e+18
1.793 3.5699999 2.6989999 19 0 0 1.7057334e+18
1.693 3.552 2.533 17 0 1 1.7057334e+18
1.585 3.5309999 2.378 26 0 2 1.7057334e+18
4.2270002 10.031 6.3790002 33 0 3 1.7057334e+18
1.694 3.5599999 2.6589999 19 0 0 1.7057334e+18
1.592 3.54 2.497 17 0 1 1.7057334e+18
1.484 3.523 2.3499999 15 0 2 1.7057334e+18
4.0040002 10.175 6.4190001 2 0 3 1.7057334e+18
1.595 3.5439999 2.6170001 19 0 0 1.7057334e+18
1.4960001 3.533 2.467 16 0 1 1.7057334e+18
1.387 3.516 2.326 3 0 2 1.7057334e+18
3.7539999 10.259 6.4260001 34 0 3 1.7057334e+18
1.503 3.54 2.586 19 0 0 1.7057334e+18
1.397 3.516 2.4330001 15 0 1 1.7057334e+18
3.6270001 9.8500004 6.4629998 36 0 2 1.7057334e+18
3.5139999 10.37 6.4549999 32 0 3 1.7057334e+18
1.411 3.53 2.552 19 0 0 1.7057334e+18
1.307 3.517 2.411 26 0 1 1.7057334e+18
3.402 9.9440002 6.4770002 34 0 2 1.7057334e+18
3.273 10.478 6.4850001 25 0 3 1.7057334e+18
1.322 3.527 2.5250001 19 0 0 1.7057334e+18
1.216 3.507 2.3840001 29 0 1 1.7057334e+18
3.1800001 10.051 6.5019999 30 0 2 1.7057334e+18
3.026 10.567 6.507 37 0 3 1.7057334e+18
1.233 3.513 2.4920001 19 0 0 1.7057334e+18
3.1070001 9.6529999 6.5110002 36 0 1 1.7057334e+18
2.957 10.156 6.5300002 32 0 2 1.7057334e+18
2.7739999 10.654 6.5310001 33 0 3 1.7057334e+18
3.0480001 9.3170004 6.5489998 32 0 0 1.7057334e+18
2.905 9.7639999 6.539 36 0 1 1.7057334e+18
2.7290001 10.248 6.552 33 0 2 1.7057334e+18
2.5469999 10.839 6.6199999 1 0 3 1.7057334e+18
2.8599999 9.4219999 6.566 33 0 0 1.7057334e+18
2.7030001 9.8850002 6.5749998 3 0 1 1.7057334e+18
2.503 10.361 6.592 20 0 2 1.7057334e+18
0 0 0 0 0 3 1.7057334e+18
2.678 9.5600004 6.6100001 1 0 0 1.7057334e+18
2.4890001 9.9709997 6.5890002 35 0 1 1.7057334e+18
2.266 10.426 6.6040001 30 0 2 1.7057334e+18
0 0 0 0 0 3 1.7057334e+18
2.474 9.6230001 6.6040001 34 0 0 1.7057334e+18
2.2739999 10.056 6.6079998 34 0 1 1.7057334e+18
0 0 0 0 0 2 1.7057334e+18
0.039999999 0.25 0.152 2 0 3 1.7057334e+18
2.2780001 9.7220001 6.625 37 0 0 1.7057334e+18
2.056 10.136 6.625 27 0 1 1.7057334e+18
0.044 0.26199999 0.164 2 16 2 1.7057334e+18
0 0 0 0 0 3 1.7057334e+18
2.0769999 9.8120003 6.6420002 37 0 0 1.7057334e+18
0 0 0 0 0 1 1.7057334e+18
0 0 0 0 0 2 1.7057334e+18
0.027000001 0.24600001 0.149 2 0 3 1.7057334e+18
1.872 9.901 6.6630001 20 0 0 1.7057334e+18
0.041999999 0.26800001 0.17399999 2 16 1 1.7057334e+18
0.030999999 0.257 0.16 2 0 2 1.7057334e+18
0 0 0 0 0 3 1.7057334e+18
0 0 0 0 0 0 1.7057334e+18
0 0 0 0 0 1 1.7057334e+18
0 0 0 0 0 2 1.7057334e+18
0.015 0.23899999 0.14399999 3 0 3 1.7057334e+18
0.039000001 0.27500001 0.183 2 16 0 1.7057334e+18
0.028999999 0.26300001 0.169 2 16 1 1.7057334e+18
0.017999999 0.25 0.156 2 0 2 1.7057334e+18
0 0 0 0 0 3 1.7057334e+18
0 0 0 0 0 0 1.7057334e+18
0 0 0 0 0 1 1.7057334e+18
0 0 0 0 0 2 1.7057334e+18
0.003 0.242 0.147 2 0 3 1.7057334e+18
0.025 0.25600001 0.169 2 0 0 1.7057334e+18
0.016000001 0.25299999 0.162 2 0 1 1.7057334e+18
0.0070000002 0.24699999 0.154 2 0 2 1.7057334e+18
0 0 0 0 0 3 1.7057334e+18
0 0 0 0 0 0 1.7057334e+18
0 0 0 0 0 1 1.7057334e+18
0 0 0 0 0 2 1.7057334e+18
-0.0070000002 0.242 0.148 2 0 3 1.7057334e+18
0.014 0.248 0.162 2 0 0 1.7057334e+18
0.0049999999 0.249 0.15899999 2 0 1 1.7057334e+18
-0.0040000002 0.25 0.156 2 0 2 1.7057334e+18
0 0 0 0 0 3 1.7057334e+18
0 0 0 0 0 0 1.7057334e+18
0 0 0 0 0 1 1.7057334e+18
0 0 0 0 0 2 1.7057334e+18
-0.018999999 0.237 0.146 2 0 3 1.7057334e+18
0.003 0.248 0.162 2 0 0 1.7057334e+18
-0.0060000001 0.248 0.15800001 2 0 1 1.7057334e+18
-0.015 0.245 0.154 2 0 2 1.7057334e+18
0 0 0 0 0 3 1.7057334e+18
0 0 0 0 0 0 1.7057334e+18
0 0 0 0 0 1 1.7057334e+18
0 0 0 0 0 2 1.7057334e+18
-0.030999999 0.24699999 0.154 2 0 3 1.7057334e+18
-0.0070000002 0.24699999 0.16 2 0 0 1.7057334e+18
-0.017000001 0.24600001 0.15700001 2 0 1 1.7057334e+18
-0.027000001 0.248 0.15700001 2 0 2 1.7057334e+18
0 0 0 0 0 3 1.7057334e+18
0 0 0 0 0 0 1.7057334e+18
0 0 0 0 0 1 1.7057334e+18
0 0 0 0 0 2 1.7057334e+18
-0.046999998 0.26699999 0.169 3 0 3 1.7057334e+18
-0.017999999 0.248 0.161 2 0 0 1.7057334e+18
-0.028000001 0.25 0.16 2 0 1 1.7057334e+18
-0.041999999 0.26899999 0.171 2 0 2 1.7057334e+18
0 0 0 0 0 3 1.7057334e+18
0 0 0 0 0 0 1.7057334e+18
0 0 0 0 0 1 1.7057334e+18
0 0 0 0 0 2 1.7057334e+18
-0.066 0.29100001 0.18700001 3 0 3 1.7057334e+18
-0.029999999 0.25099999 0.163 2 0 0 1.7057334e+18
-0.044 0.27200001 0.175 3 0 1 1.7057334e+18
-0.057999998 0.28200001 0.182 3 0 2 1.7057334e+18
0 0 0 0 0 3 1.7057334e+18
0 0 0 0 0 0 1.7057334e+18
0 0 0 0 0 1 1.7057334e+18
0 0 0 0 0 2 1.7057334e+18
-0.083999999 0.303 0.198 4 0 3 1.7057334e+18
-0.044 0.26699999 0.17399999 3 0 0 1.7057334e+18
-0.059 0.28400001 0.185 3 0 1 1.7057334e+18
-0.075999998 0.301 0.197 3 0 2 1.7057334e+18
0 0 0 0 0 3 1.7057334e+18
0 0 0 0 0 0 1.7057334e+18
0 0 0 0 0 1 1.7057334e+18
0 0 0 0 0 2 1.7057334e+18
-0.1 0.30399999 0.20299999 4 0 3 1.7057334e+18
-0.059999999 0.287 0.18799999 3 0 0 1.7057334e+18
-0.077 0.303 0.2 3 0 1 1.7057334e+18
-0.097999997 0.324 0.215 4 0 2 1.7057334e+18
0 0 0 0 0 3 1.7057334e+18
0 0 0 0 0 0 1.7057334e+18
0 0 0 0 0 1 1.7057334e+18
0 0 0 0 0 2 1.7057334e+18
-0.118 0.30899999 0.211 4 0 3 1.7057334e+18
-0.079000004 0.30700001 0.20299999 4 0 0 1.7057334e+18
-0.098999999 0.32600001 0.21699999 4 0 1 1.7057334e+18
-0.112 0.31400001 0.213 4 0 2 1.7057334e+18
0 0 0 0 0 3 1.7057334e+18
0 0 0 0 0 0 1.7057334e+18
0 0 0 0 0 1 1.7057334e+18
0 0 0 0 0 2 1.7057334e+18
-0.115 0.26199999 0.184 3 0 3 1.7057334e+18
-0.1 0.32800001 0.21799999 4 0 0 1.7057334e+18
-0.112 0.31400001 0.213 4 0 1 1.7057334e+18
-0.115 0.28099999 0.19400001 3 0 2 1.7057334e+18
0 0 0 0 0 3 1.7057334e+18
0 0 0 0 0 0 1.7057334e+18
0 0 0 0 0 1 1.7057334e+18
0 0 0 0 0 2 1.7057334e+18
-0.13600001 0.273 0.197 4 0 3 1.7057334e+18
-0.112 0.31400001 0.212 4 0 0 1.7057334e+18
-0.113 0.278 0.192 3 0 1 1.7057334e+18
-0.127 0.273 0.19400001 3 0 2 1.7057334e+18
0 0 0 0 0 3 1.7057334e+18
0 0 0 0 0 0 1.7057334e+18
0 0 0 0 0 1 1.7057334e+18
0 0 0 0 0 2 1.7057334e+18
-0.2 0.359 0.26699999 6 0 3 1.7057334e+18
-0.114 0.28 0.192 3 0 0 1.7057334e+18
-0.124 0.26800001 0.18799999 3 0 1 1.7057334e+18
-0.14399999 0.27599999 0.20100001 3 0 2 1.7057334e+18
0 0 0 0 0 3 1.7057334e+18
0 0 0 0 0 0 1.7057334e+18
0 0 0 0 0 1 1.7057334e+18
0 0 0 0 0 2 1.7057334e+18
-0.221 0.35499999 0.27399999 5 0 3 1.7057334e+18
-0.126 0.27200001 0.189 3 0 0 1.7057334e+18
-0.146 0.28099999 0.20200001 3 0 1 1.7057334e+18
-0.211 0.361 0.271 5 0 2 1.7057334e+18
0 0 0 0 0 3 1.7057334e+18
0 0 0 0 0 0 1.7057334e+18
0 0 0 0 0 1 1.7057334e+18
0 0 0 0 0 2 1.7057334e+18
-0.23100001 0.33500001 0.26800001 5 0 3 1.7057334e+18
-0.145 0.27900001 0.198 4 0 0 1.7057334e+18
-0.211 0.36399999 0.26899999 5 0 1 1.7057334e+18
-0.228 0.352 0.273 4 0 2 1.7057334e+18
0 0 0 0 0 3 1.7057334e+18
0 0 0 0 0 0 1.7057334e+18
-6.2979999 10.309 7.724 2 0 1 1.7057334e+18
0 0 0 0 0 2 1.7057334e+18
-0.25099999 0.33000001 0.27500001 4 0 3 1.7057334e+18
-0.20900001 0.361 0.26300001 4 0 0 1.7057334e+18
0 0 0 0 0 1 1.7057334e+18
-0.236 0.33000001 0.26499999 5 16 2 1.7057334e+18
0 0 0 0 0 3 1.7057334e+18
-6.3610001 10.432 7.678 23 0 0 1.7057334e+18
-0.236 0.34900001 0.27000001 4 0 1 1.7057334e+18
0 0 0 0 0 2 1.7057334e+18
0 0 0 0 0 3 1.7057334e+18
-6.6609998 10.384 7.744 5 0 0 1.7057334e+18
0 0 0 0 0 1 1.7057334e+18
0 0 0 0 0 2 1.7057334e+18
-7.3800001 8.401 7.5120001 17 0 3 1.7057334e+18
0 0 0 0 0 0 1.7057334e+18
-0.249 0.33399999 0.26699999 4 16 1 1.7057334e+18
-7.283 8.8129997 7.5089998 2 0 2 1.7057334e+18
-7.8610001 8.5380001 7.8249998 29 0 3 1.7057334e+18
-0.241 0.34 0.26100001 2 0 0 1.7057334e+18
-7.5139999 9.6090002 7.8169999 3 0 1 1.7057334e+18
-7.7329998 8.9259996 7.7740002 26 0 2 1.7057334e+18
-8.0229998 8.3170004 7.8189998 41 0 3 1.7057334e+18
0 0 0 0 0 0 1.7057334e+18
-7.368 8.9860001 7.4520001 15 0 1 1.7057334e+18
-7.9460001 8.7530003 7.796 35 0 2 1.7057334e+18
-8.184 8.0939999 7.8169999 34 0 3 1.7057334e+18
0 0 0 0 0 0 1.7057334e+18
-7.9099998 9.2060003 7.7880001 40 0 1 1.7057334e+18
-8.1300001 8.5480003 7.7969999 35 0 2 1.7057334e+18
-8.3280001 7.862 7.8049998 29 0 3 1.7057334e+18
-7.8930001 9.6520004 7.789 33 0 0 1.7057334e+18
-8.0979996 8.9969997 7.7719998 34 0 1 1.7057334e+18
-8.2959995 8.3290005 7.7870002 35 0 2 1.7057334e+18
-8.4720001 7.631 7.7989998 41 0 3 1.7057334e+18
-8.1110001 9.4659996 7.7800002 38 0 0 1.7057334e+18
-8.2980003 8.7989998 7.77 33 0 1 1.7057334e+18
-8.4560003 8.1070004 7.7750001 36 0 2 1.7057334e+18
-8.6330004 7.421 7.816 18 0 3 1.7057334e+18
-8.3290005 9.276 7.776 32 0 0 1.7057334e+18
-8.4829998 8.5900002 7.7610002 37 0 1 1.7057334e+18
-8.6300001 7.8959999 7.7800002 26 0 2 1.7057334e+18
0 0 0 0 0 3 1.7057334e+18
-8.5319996 9.0699997 7.7620001 32 0 0 1.7057334e+18
-8.6689997 8.3809996 7.7579999 28 0 1 1.7057334e+18
-8.7659998 7.6560001 7.7579999 2 0 2 1.7057334e+18
-8.8590002 6.9250002 7.7750001 15 0 3 1.7057334e+18
-8.7349997 8.8660002 7.7519999 25 0 0 1.7057334e+18
-8.7969999 8.118 7.7080002 2 0 1 1.7057334e+18
-8.927 7.441 7.7639999 20 0 2 1.7057334e+18
-8.9899998 6.6989999 7.7800002 35 0 3 1.7057334e+18
-8.8590002 8.5819998 7.678 2 0 0 1.7057334e+18
-9.0100002 7.9369998 7.737 39 0 1 1.7057334e+18
-9.0740004 7.2129998 7.7610002 36 0 2 1.7057334e+18
-9.1059999 6.4640002 7.7779999 36 0 3 1.7057334e+18
-9.1169996 8.4300003 7.7249999 33 0 0 1.7057334e+18
-9.1800003 7.7140002 7.7329998 35 0 1 1.7057334e+18
-9.2110004 6.9809999 7.7550001 37 0 2 1.7057334e+18
-9.2189999 6.2280002 7.777 37 0 3 1.7057334e+18
-9.3170004 8.2220001 7.7270002 35 0 0 1.7057334e+18
-9.3380003 7.4850001 7.7259998 38 0 1 1.7057334e+18
-9.3459997 6.7490001 7.7540002 33 0 2 1.7057334e+18
-9.3319998 5.9949999 7.7810001 39 0 3 1.7057334e+18
-9.493 7.9889998 7.7119999 35 0 0 1.7057334e+18
-9.4940004 7.2550001 7.7189999 39 0 1 1.7057334e+18
-9.4639997 6.507 7.7420001 38 0 2 1.7057334e+18
-9.4180002 5.7470002 7.7690001 40 0 3 1.7057334e+18
-9.6730003 7.763 7.7059999 33 0 0 1.7057334e+18
-9.6389999 7.0159998 7.71 37 0 1 1.7057334e+18
-9.5950003 6.276 7.7449999 42 0 2 1.7057334e+18
-9.5249996 5.5170002 7.7779999 36 0 3 1.7057334e+18
-9.8500004 7.5320001 7.7020001 34 0 0 1.7057334e+18
-9.7880001 6.783 7.7090001 40 0 1 1.7057334e+18
-9.7089996 6.0339999 7.7399998 34 0 2 1.7057334e+18
-9.6070004 5.2729998 7.77 36 0 3 1.7057334e+18
-10.001 7.2839999 7.6830001 14 0 0 1.7057334e+18
-9.9209995 6.5380001 7.7010002 18 0 1 1.7057334e+18
-9.8120003 5.789 7.7309999 32 0 2 1.7057334e+18
-9.7040005 5.039 7.7810001 34 0 3 1.7057334e+18
0 0 0 0 0 0 1.7057334e+18
-10.024 6.277 7.6719999 2 0 1 1.7057334e+18
-9.9209995 5.5500002 7.7319999 2 0 2 1.7057334e+18
-9.7480001 4.7820001 7.7550001 11 0 3 1.7057334e+18
0 0 0 0 0 0 1.7057334e+18
-10.206 6.066 7.71 4 0 1 1.7057334e+18
-9.9020004 5.2420001 7.6389999 2 0 2 1.7057334e+18
-9.8760004 4.5679998 7.7989998 2 0 3 1.7057334e+18
-10.473 6.5510001 7.6669998 42 0 0 1.7057334e+18
-10.303 5.802 7.6880002 36 0 1 1.7057334e+18
-10.156 5.0819998 7.7610002 10 0 2 1.7057334e+18
-9.8509998 4.2849998 7.7270002 2 0 3 1.7057334e+18
-10.631 6.3070002 7.671 37 0 0 1.7057334e+18
-10.423 5.5539999 7.6880002 36 0 1 1.7057334e+18
-10.22 4.8210001 7.7410002 38 0 2 1.7057334e+18
-9.8760004 4.0310001 7.6989999 3 0 3 1.7057334e+18
-10.77 6.0500002 7.6669998 32 0 0 1.7057334e+18
-10.556 5.3140001 7.7010002 38 0 1 1.7057334e+18
-10.295 4.5710001 7.7350001 37 0 2 1.7057334e+18
-10.057 3.839 7.7989998 31 0 3 1.7057334e+18
-10.909 5.7940001 7.6669998 36 0 0 1.7057334e+18
-10.639 5.0469999 7.684 38 0 1 1.7057334e+18
-10.389 4.329 7.7449999 38 0 2 1.7057334e+18
-10.088 3.5910001 7.783 40 0 3 1.7057334e+18
-11.037 5.533 7.664 34 0 0 1.7057334e+18
-10.753 4.7979999 7.6939998 39 0 1 1.7057334e+18
-10.453 4.0749998 7.7399998 38 0 2 1.7057334e+18
-10.139 3.352 7.7880001 39 0 3 1.7057334e+18
-11.157 5.2649999 7.6599998 32 0 0 1.7057334e+18
-10.843 4.539 7.6900001 39 0 1 1.7057334e+18
-10.519 3.826 7.7399998 38 0 2 1.7057334e+18
-9.2720003 2.8329999 7.0960002 4 0 3 1.7057334e+18
-11.252 4.9879999 7.6440001 3 0 0 1.7057334e+18
-10.932 4.277 7.691 40 0 1 1.7057334e+18
-10.581 3.575 7.7399998 47 0 2 1.7057334e+18
-9.6169996 2.7030001 7.3369999 9 0 3 1.7057334e+18
-11.267 4.678 7.5799999 2 0 0 1.7057334e+18
-11.007 4.0139999 7.6859999 34 0 1 1.7057334e+18
-10.652 3.3280001 7.7540002 42 0 2 1.7057334e+18
-10.179 2.6140001 7.744 29 0 3 1.7057334e+18
-11.544 4.4749999 7.6960001 7 0 0 1.7057334e+18
-11.074 3.7460001 7.6810002 12 0 1 1.7057334e+18
-9.7279997 2.796 7.0500002 4 0 2 1.7057334e+18
-10.282 2.3940001 7.8060002 38 0 3 1.7057334e+18
-11.589 4.1789999 7.6599998 34 0 0 1.7057334e+18
-11.143 3.4820001 7.6799998 4 0 1 1.7057334e+18
-10.106 2.655 7.296 7 0 2 1.7057334e+18
-10.291 2.1530001 7.8000002 39 0 3 1.7057334e+18
-11.68 3.9000001 7.6620002 37 0 0 1.7057334e+18
-11.136 3.197 7.6329999 3 0 1 1.7057334e+18
-10.712 2.553 7.7059999 36 0 2 1.7057334e+18
-10.304 1.914 7.802 41 0 3 1.7057334e+18
-11.762 3.619 7.6609998 36 0 0 1.7057334e+18
-10.265 2.688 7.0029998 7 0 1 1.7057334e+18
-10.815 2.3180001 7.7579999 36 0 2 1.7057334e+18
-10.325 1.6799999 7.8119998 40 0 3 1.7057334e+18
-11.847 3.3369999 7.6669998 40 0 0 1.7057334e+18
-10.929 2.5910001 7.4239998 10 0 1 1.7057334e+18
-10.834 2.062 7.756 35 0 2 1.7057334e+18
-10.333 1.4450001 7.8169999 37 0 3 1.7057334e+18
-10.943 2.803 7.0419998 3 0 0 1.7057334e+18
-11.396 2.4200001 7.7129998 27 0 1 1.7057334e+18
-10.866 1.813 7.7659998 27 0 2 1.7057334e+18
-10.337 1.209 7.8239999 39 0 3 1.7057334e+18
-10.947 2.5280001 7.0089998 16 0 0 1.7057334e+18
-11.001 2.069 7.4229999 21 0 1 1.7057334e+18
-10.882 1.559 7.7680001 22 0 2 1.7057334e+18
-10.339 0.97600001 7.8309999 37 0 3 1.7057334e+18
-11.934 2.4560001 7.6090002 28 0 0 1.7057334e+18
-11.458 1.8789999 7.7119999 39 0 1 1.7057334e+18
-10.884 1.307 7.7649999 15 0 2 1.7057334e+18
-10.33 0.74199998 7.836 38 0 3 1.7057334e+18
-12.083 2.187 7.6739998 43 0 0 1.7057334e+18
-11.485 1.608 7.717 41 0 1 1.7057334e+18
-10.873 1.0549999 7.756 14 0 2 1.7057334e+18
-10.312 0.51099998 7.836 44 0 3 1.7057334e+18
-12.131 1.896 7.6820002 35 0 0 1.7057334e+18
-11.509 1.337 7.7220001 38 0 1 1.7057334e+18
-10.871 0.80299997 7.7589998 16 0 2 1.7057334e+18
-10.296 0.28200001 7.8410001 39 0 3 1.7057334e+18
-12.155 1.603 7.6789999 36 0 0 1.7057334e+18
-11.522 1.067 7.7259998 38 0 1 1.7057334e+18
-10.863 0.55400002 7.7610002 15 0 2 1.7057334e+18
-10.28 0.052000001 7.8499999 38 0 3 1.7057334e+18
-12.177 1.311 7.6799998 35 0 0 1.7057334e+18
-11.526 0.79400003 7.7290001 44 0 1 1.7057334e+18
-10.851 0.30599999 7.7639999 15 0 2 1.7057334e+18
-10.26 -0.17399999 7.8600001 38 0 3 1.7057334e+18
-12.184 1.015 7.6760001 29 0 0 1.7057334e+18
-11.529 0.52399999 7.7350001 38 0 1 1.7057334e+18
-10.81 0.057999998 7.7509999 22 0 2 1.7057334e+18
-10.245 -0.40000001 7.8769999 39 0 3 1.7057334e+18
-12.199 0.72299999 7.6810002 20 0 0 1.7057334e+18
-11.541 0.25299999 7.7509999 38 0 1 1.7057334e+18
-10.797 -0.18700001 7.7600002 32 0 2 1.7057334e+18
-10.197 -0.62400001 7.8730001 46 0 3 1.7057334e+18
-12.203 0.43000001 7.6849999 21 0 0 1.7057334e+18
-11.52 -0.016000001 7.75 38 0 1 1.7057334e+18
-10.764 -0.43200001 7.7610002 59 0 2 1.7057334e+18
-10.176 -0.84899998 7.8909998 38 0 3 1.7057334e+18
-12.197 0.134 7.6880002 26 0 0 1.7057334e+18
-11.505 -0.28400001 7.757 37 0 1 1.7057334e+18
-10.76 -0.67699999 7.7859998 73 0 2 1.7057334e+18
-6.4489999 -0.68099999 5.026 4 0 3 1.7057334e+18
-12.178 -0.15700001 7.6869998 28 0 0 1.7057334e+18
-11.496 -0.55500001 7.7729998 39 0 1 1.7057334e+18
-10.74 -0.92000002 7.803 65 0 2 1.7057334e+18
-6.467 -0.82700002 5.0669999 66 0 3 1.7057334e+18
-12.156 -0.449 7.6890001 39 0 0 1.7057334e+18
-11.456 -0.82200003 7.7719998 39 0 1 1.7057334e+18
-10.681 -1.161 7.7969999 50 0 2 1.7057334e+18
-6.4349999 -0.96600002 5.072 9 0 3 1.7057334e+18
-12.115 -0.741 7.6859999 79 0 0 1.7057334e+18
-11.427 -1.089 7.783 40 0 1 1.7057334e+18
-10.648 -1.402 7.8119998 43 0 2 1.7057334e+18
-9.9639997 -1.722 7.9029999 17 0 3 1.7057334e+18
-12.074 -1.031 7.6849999 72 0 0 1.7057334e+18
-11.371 -1.354 7.7810001 50 0 1 1.7057334e+18
-10.625 -1.645 7.8379998 32 0 2 1.7057334e+18
-9.915 -1.937 7.9169998 38 0 3 1.7057334e+18
-12.057 -1.324 7.7059999 41 0 0 1.7057334e+18
-11.323 -1.618 7.7870002 49 0 1 1.7057334e+18
-10.578 -1.885 7.8530002 32 0 2 1.7057334e+18
-9.8500004 -2.148 7.9219999 41 0 3 1.7057334e+18
-12.015 -1.613 7.7160001 32 0 0 1.7057334e+18
-11.289 -1.885 7.8099999 48 0 1 1.7057334e+18
-10.522 -2.122 7.8629999 28 0 2 1.7057334e+18
-9.8070002 -2.3640001 7.9489999 41 0 3 1.7057334e+18
-12 -1.9069999 7.7470002 23 0 0 1.7057334e+18
-11.222 -2.145 7.8130002 50 0 1 1.7057334e+18
-10.464 -2.358 7.8769999 34 0 2 1.7057334e+18
-9.7320004 -2.5710001 7.9510002 42 0 3 1.7057334e+18
-11.939 -2.1949999 7.7550001 23 0 0 1.7057334e+18
-11.163 -2.4059999 7.8249998 37 0 1 1.7057334e+18
-10.397 -2.592 7.8860002 35 0 2 1.7057334e+18
-9.6630001 -2.7780001 7.9619999 37 0 3 1.7057334e+18
-11.881 -2.4820001 7.7690001 24 0 0 1.7057334e+18
-11.109 -2.6689999 7.8470001 39 0 1 1.7057334e+18
-10.325 -2.822 7.8959999 42 0 2 1.7057334e+18
-9.5780001 -2.9820001 7.9629998 47 0 3 1.7057334e+18
-11.824 -2.7690001 7.789 27 0 0 1.7057334e+18
-11.035 -2.9260001 7.8579998 38 0 1 1.7057334e+18
-10.248 -3.053 7.9070001 45 0 2 1.7057334e+18
-9.5200005 -3.191 7.9889998 39 0 3 1.7057334e+18
-11.743 -3.053 7.7989998 32 0 0 1.7057334e+18
-10.954 -3.1800001 7.868 46 0 1 1.7057334e+18
-10.174 -3.2820001 7.9229999 48 0 2 1.7057334e+18
-9.4429998 -3.3940001 8.0050001 36 0 3 1.7057334e+18
-11.673 -3.3369999 7.8200002 40 0 0 1.7057334e+18
-10.907 -3.447 7.908 35 0 1 1.7057334e+18
-10.083 -3.5050001 7.9299998 47 0 2 1.7057334e+18
-9.3809996 -3.602 8.0349998 23 0 3 1.7057334e+18
-11.6 -3.6240001 7.8470001 42 0 0 1.7057334e+18
-10.822 -3.7 7.9260001 25 0 1 1.7057334e+18
-10.01 -3.7349999 7.9559999 43 0 2 1.7057334e+18
-9.3030005 -3.8039999 8.0530005 14 0 3 1.7057334e+18
-11.503 -3.901 7.8600001 46 0 0 1.7057334e+18
-10.751 -3.9579999 7.9569998 16 0 1 1.7057334e+18
-9.908 -3.9530001 7.961 47 0 2 1.7057334e+18
-9.1820002 -3.9879999 8.0410004 5 0 3 1.7057334e+18
-11.402 -4.177 7.875 43 0 0 1.7057334e+18
-10.587 -4.1830001 7.9250002 8 0 1 1.7057334e+18
-9.8140001 -4.1739998 7.9759998 46 0 2 1.7057334e+18
-9.0480003 -4.1630001 8.0170002 5 0 3 1.7057334e+18
-11.3 -4.454 7.8979998 41 0 0 1.7057334e+18
-10.381 -4.3850002 7.8639998 8 0 1 1.7057334e+18
-9.7180004 -4.3940001 7.9949999 42 0 2 1.7057334e+18
-8.9390001 -4.3470001 8.0170002 8 0 3 1.7057334e+18
-11.171 -4.7179999 7.9039998 45 0 0 1.7057334e+18
-10.322 -4.6490002 7.9200001 12 0 1 1.7057334e+18
-9.6160002 -4.6110001 8.0120001 48 0 2 1.7057334e+18
-8.8610001 -4.5479999 8.0509996 17 0 3 1.7057334e+18
-10.602 -4.7839999 7.599 13 0 0 1.7057334e+18
-10.054 -4.8130002 7.8169999 26 0 1 1.7057334e+18
-9.368 -4.7540002 7.9109998 29 0 2 1.7057334e+18
-8.7089996 -4.7069998 8.0179996 27 0 3 1.7057334e+18
-10.132 -4.8720002 7.3649998 12 0 0 1.7057334e+18
-9.4659996 -4.8070002 7.4619999 8 0 1 1.7057334e+18
-8.8620005 -4.75 7.5869999 12 0 2 1.7057334e+18
-8.2399998 -4.6849999 7.6929998 9 0 3 1.7057334e+18
-10.724 -5.4790001 7.9099998 26 0 0 1.7057334e+18
-9.0950003 -4.8899999 7.276 9 0 1 1.7057334e+18
-8.4720001 -4.789 7.3610001 17 0 2 1.7057334e+18
-7.8390002 -4.6810002 7.4229999 14 0 3 1.7057334e+18
-10.651 -5.7729998 7.98 33 0 0 1.7057334e+18
-9.8570004 -5.5999999 8.0080004 39 0 1 1.7057334e+18
-9.1709995 -5.4590001 8.0900002 19 0 2 1.7057334e+18
-8.4390001 -5.2870002 8.1120005 38 0 3 1.7057334e+18
-10.527 -6.0409999 8.0159998 14 0 0 1.7057334e+18
-9.7089996 -5.8210001 8.0159998 49 0 1 1.7057334e+18
-9.0349998 -5.6539998 8.0959997 7 0 2 1.7057334e+18
-8.316 -5.46 8.118 37 0 3 1.7057334e+18
-10.282 -6.2350001 7.9629998 6 0 0 1.7057334e+18
-9.5749998 -6.0489998 8.04 48 0 1 1.7057334e+18
-8.8299999 -5.8049998 8.0419998 6 0 2 1.7057334e+18
-8.1920004 -5.631 8.1260004 43 0 3 1.7057334e+18
-10.119 -6.4780002 7.9809999 15 0 0 1.7057334e+18
-9.408 -6.2550001 8.04 45 0 1 1.7057334e+18
-8.7089996 -6.0100002 8.0710001 21 0 2 1.7057334e+18
-8.0710001 -5.803 8.1379995 37 0 3 1.7057334e+18
-9.974 -6.7319999 8.0150003 33 0 0 1.7057334e+18
-9.2629995 -6.4759998 8.0649996 41 0 1 1.7057334e+18
-8.5970001 -6.2189999 8.1099997 39 0 2 1.7057334e+18
-7.947 -5.9749999 8.1549997 39 0 3 1.7057334e+18
-9.8170004 -6.9770002 8.0459995 35 0 0 1.7057334e+18
-9.1149998 -6.6950002 8.0900002 34 0 1 1.7057334e+18
-8.4519997 -6.408 8.1239996 35 0 2 1.7057334e+18
-7.8080001 -6.1329999 8.1560001 39 0 3 1.7057334e+18
-9.6239996 -7.1989999 8.0539999 35 0 0 1.7057334e+18
-8.9790001 -6.9239998 8.1330004 9 0 1 1.7057334e+18
-8.2919998 -6.5830002 8.1260004 44 0 2 1.7057334e+18
-7.697 -6.3150001 8.1899996 34 0 3 1.7057334e+18
-9.427 -7.414 8.0600004 35 0 0 1.7057334e+18
-8.7360001 -7.066 8.0790005 3 0 1 1.7057334e+18
-8.1459999 -6.7690001 8.1459999 44 0 2 1.7057334e+18
-7.5780001 -6.4899998 8.2200003 12 0 3 1.7057334e+18
-9.2390003 -7.638 8.0830002 38 0 0 1.7057334e+18
-8.5550003 -7.256 8.0860004 16 0 1 1.7057334e+18
-7.9899998 -6.9450002 8.158 43 0 2 1.7057334e+18
-7.3909998 -6.605 8.177 4 0 3 1.7057334e+18
-9.0469999 -7.855 8.1040001 40 0 0 1.7057334e+18
-8.4160004 -7.4809999 8.1379995 38 0 1 1.7057334e+18
-7.8260002 -7.1139998 8.165 45 0 2 1.7057334e+18
-7.2480001 -6.7589998 8.1870003 16 0 3 1.7057334e+18
-8.8889999 -8.1029997 8.1610003 9 0 0 1.7057334e+18
-8.2250004 -7.6630001 8.1459999 39 0 1 1.7057334e+18
-7.6630001 -7.283 8.1780005 39 0 2 1.7057334e+18
-7.125 -6.9299998 8.2209997 36 0 3 1.7057334e+18
-8.5979996 -8.2299995 8.1020002 4 0 0 1.7057334e+18
-8.0380001 -7.8449998 8.1610003 42 0 1 1.7057334e+18
-7.5279999 -7.4809999 8.2270002 23 0 2 1.7057334e+18
-6.9770002 -7.0780001 8.2299995 39 0 3 1.7057334e+18
-8.4110003 -8.4499998 8.1420002 29 0 0 1.7057334e+18
-7.8569999 -8.0360003 8.1870003 39 0 1 1.7057334e+18
-7.3099999 -7.5960002 8.1870003 3 0 2 1.7057334e+18
-6.8200002 -7.2179999 8.2340002 39 0 3 1.7057334e+18
-8.2130003 -8.6619997 8.1800003 36 0 0 1.7057334e+18
-7.658 -8.2040005 8.1969995 37 0 1 1.7057334e+18
-7.1370001 -7.7529998 8.1990004 14 0 2 1.7057334e+18
-6.6799998 -7.3730001 8.257 39 0 3 1.7057334e+18
-7.9860001 -8.842 8.1920004 38 0 0 1.7057334e+18
-7.4629998 -8.3789997 8.217 37 0 1 1.7057334e+18
-6.9809999 -7.9289999 8.2340002 38 0 2 1.7057334e+18
-6.5229998 -7.513 8.2670002 38 0 3 1.7057334e+18
-7.7610002 -9.0220003 8.21 36 0 0 1.7057334e+18
-7.309 -8.6000004 8.2869997 4 0 1 1.7057334e+18
-6.8060002 -8.0830002 8.25 36 0 2 1.7057334e+18
-6.3699999 -7.6550002 8.2810001 39 0 3 1.7057334e+18
-7.5300002 -9.1920004 8.2259998 35 0 0 1.7057334e+18
-7.0370002 -8.6789999 8.2259998 13 0 1 1.7057334e+18
-6.625 -8.2329998 8.2670002 42 0 2 1.7057334e+18
-6.2160001 -7.7969999 8.3000002 29 0 3 1.7057334e+18
-7.3179998 -9.3900003 8.2700005 15 0 0 1.7057334e+18
-6.8520002 -8.8629999 8.2690001 37 0 1 1.7057334e+18
-6.441 -8.3760004 8.2810001 45 0 2 1.7057334e+18
-5.777 -7.5669999 7.9320002 10 0 3 1.7057334e+18
-7.0440001 -9.5030003 8.2460003 5 0 0 1.7057334e+18
-6.6389999 -9.0129995 8.2849998 37 0 1 1.7057334e+18
-6.2540002 -8.5150003 8.2939997 44 0 2 1.7057334e+18
-5.8410001 -7.9920001 8.2539997 2 0 3 1.7057334e+18
-6.8239999 -9.6890001 8.2910004 33 0 0 1.7057334e+18
-6.4260001 -9.1599998 8.3039999 35 0 1 1.7057334e+18
-6.0539999 -8.6379995 8.2950001 30 0 2 1.7057334e+18
-5.7410002 -8.2119999 8.3610001 3 0 3 1.7057334e+18
-6.5830002 -9.8409996 8.3140001 29 0 0 1.7057334e+18
-6.2069998 -9.3000002 8.3210001 35 0 1 1.7057334e+18
-5.6539998 -8.4589996 8.0150003 6 1 2 1.7057334e+18
-5.421 -8.1099997 8.1450005 2 0 3 1.7057334e+18
-6.329 -9.9770002 8.3260002 35 0 0 1.7057334e+18
-5.6760001 -8.9449997 7.9029999 2 0 1 1.7057334e+18
-5.6890001 -8.9320002 8.3570004 2 0 2 1.7057334e+18
-5.3460002 -8.3719997 8.2989998 10 0 3 1.7057334e+18
-6.0900002 -10.132 8.3610001 27 0 0 1.7057334e+18
-5.592 -9.2799997 8.1049995 4 0 1 1.7057334e+18
-5.3449998 -8.816 8.1479998 2 0 2 1.7057334e+18
-5.1789999 -8.4969997 8.3170004 28 0 3 1.7057334e+18
-5.5570002 -9.7700005 7.9790001 15 0 0 1.7057334e+18
-5.5570002 -9.7209997 8.3990002 2 0 1 1.7057334e+18
-5.2490001 -9.1029997 8.3179998 15 0 2 1.7057334e+18
-4.9850001 -8.5780001 8.2980003 33 0 3 1.7057334e+18
-5.5689998 -10.364 8.3809996 2 0 0 1.7057334e+18
-5.2639999 -9.7250004 8.3170004 2 0 1 1.7057334e+18
-5.0339999 -9.191 8.3079996 24 0 2 1.7057334e+18
-4.7810001 -8.6359997 8.2600002 34 0 3 1.7057334e+18
0 0 0 0 0 0 1.7057334e+18
-5.0469999 -9.8599997 8.3529997 22 0 1 1.7057334e+18
-4.809 -9.2609997 8.2860003 25 0 2 1.7057334e+18
-4.5900002 -8.717 8.2469997 27 0 3 1.7057334e+18
0 0 0 0 0 0 1.7057334e+18
-4.7870002 -9.9110003 8.323 24 0 1 1.7057334e+18
-4.5830002 -9.3219995 8.2609997 27 0 2 1.7057334e+18
-4.3959999 -8.79 8.2290001 26 0 3 1.7057334e+18
-4.7280002 -10.566 8.3430004 21 0 0 1.7057334e+18
-4.5279999 -9.9530001 8.29 25 0 1 1.7057334e+18
-4.3559999 -9.3739996 8.2329998 20 0 2 1.7057334e+18
0 0 0 0 0 3 1.7057334e+18
-4.4380002 -10.594 8.309 21 0 0 1.7057334e+18
-4.2690001 -9.9870005 8.2559996 24 0 1 1.7057334e+18
-4.1420002 -9.4510002 8.2299995 2 0 2 1.7057334e+18
-3.9890001 -8.8870001 8.1610003 10 0 3 1.7057334e+18
-4.1490002 -10.608 8.2709999 20 0 0 1.7057334e+18
0 0 0 0 0 1 1.7057334e+18
-3.905 -9.4689999 8.1800003 21 0 2 1.7057334e+18
-3.7969999 -8.9530001 8.1479998 24 0 3 1.7057334e+18
-3.8469999 -10.581 8.2080002 3 0 0 1.7057334e+18
0 0 0 0 0 1 1.7057334e+18
-3.6830001 -9.5209999 8.1660004 23 0 2 1.7057334e+18
-3.599 -9.0039997 8.125 24 0 3 1.7057334e+18
-3.576 -10.62 8.1999998 24 0 0 1.7057334e+18
-3.507 -10.076 8.1750002 20 0 1 1.7057334e+18
-3.4619999 -9.566 8.1490002 26 0 2 1.7057334e+18
-3.401 -9.0539999 8.1059999 24 0 3 1.7057334e+18
-3.2969999 -10.624 8.1719999 27 0 0 1.7057334e+18
-3.2539999 -10.088 8.1440001 22 0 1 1.7057334e+18
-3.2279999 -9.5760002 8.1049995 31 0 2 1.7057334e+18
-3.2019999 -9.0950003 8.0810003 23 0 3 1.7057334e+18
-3.016 -10.613 8.1379995 20 0 0 1.7057334e+18
-3.0039999 -10.098 8.1160002 23 0 1 1.7057334e+18
-3.0079999 -9.6099997 8.0869999 23 0 2 1.7057334e+18
-3.003 -9.1359997 8.059 28 0 3 1.7057334e+18
-2.7409999 -10.6 8.1059999 21 0 0 1.7057334e+18
-2.7509999 -10.092 8.0799999 21 0 1 1.7057334e+18
-2.7850001 -9.6330004 8.0629997 24 0 2 1.7057334e+18
-2.8050001 -9.1730003 8.0380001 22 0 3 1.7057334e+18
-2.4619999 -10.556 8.0559998 3 0 0 1.7057334e+18
-2.4990001 -10.068 8.033 3 0 1 1.7057334e+18
-2.54 -9.5620003 7.9640002 4 0 2 1.7057334e+18
-2.5869999 -9.1379995 7.9559999 4 0 3 1.7057334e+18
-2.1930001 -10.536 8.0319996 25 0 0 1.7057334e+18
-2.2620001 -10.093 8.0299997 22 0 1 1.7057334e+18
-2.336 -9.6450005 7.9990001 30 0 2 1.7057334e+18
-2.408 -9.2370005 7.994 24 0 3 1.7057334e+18
-1.929 -10.514 8.0080004 26 0 0 1.7057334e+18
-2.016 -10.072 7.9970002 21 0 1 1.7057334e+18
-2.115 -9.6479998 7.9710002 27 0 2 1.7057334e+18
-2.2090001 -9.2639999 7.9749999 24 0 3 1.7057334e+18
-1.663 -10.456 7.9640002 27 0 0 1.7057334e+18
-1.775 -10.052 7.9660001 21 0 1 1.7057334e+18
-1.897 -9.6599998 7.954 25 0 2 1.7057334e+18
-2.0120001 -9.2919998 7.9580002 24 0 3 1.7057334e+18
-1.401 -10.405 7.9299998 27 0 0 1.7057334e+18
-1.535 -10.026 7.9369998 26 0 1 1.7057334e+18
-1.679 -9.6610003 7.9310002 25 0 2 1.7057334e+18
-1.8099999 -9.3009996 7.9289999 29 0 3 1.7057334e+18
-1.145 -10.352 7.8979998 2 0 0 1.7057334e+18
-1.299 -9.9960003 7.908 27 0 1 1.7057334e+18
-1.459 -9.6409998 7.8959999 29 0 2 1.7057334e+18
-1.613 -9.3199997 7.9120002 23 0 3 1.7057334e+18
-0.88999999 -10.29 7.8629999 23 0 0 1.7057334e+18
-1.064 -9.9530001 7.8730001 12 0 1 1.7057334e+18
-1.244 -9.6330004 7.8740001 6 0 2 1.7057334e+18
-1.413 -9.3190002 7.8800001 29 0 3 1.7057334e+18
-0.64200002 -10.234 7.8379998 30 0 0 1.7057334e+18
-0.82999998 -9.9020004 7.835 30 0 1 1.7057334e+18
-1.029 -9.6160002 7.8460002 32 0 2 1.7057334e+18
-1.211 -9.3050003 7.8410001 1 0 3 1.7057334e+18
-0.39700001 -10.161 7.802 30 0 0 1.7057334e+18
-0.60100001 -9.849 7.7989998 34 0 1 1.7057334e+18
-0.81599998 -9.5959997 7.822 33 0 2 1.7057334e+18
-1.016 -9.3269997 7.836 30 0 3 1.7057334e+18
-0.154 -10.075 7.7639999 31 0 0 1.7057334e+18
-0.37599999 -9.8149996 7.783 33 0 1 1.7057334e+18
-0.60299999 -9.566 7.7930002 28 0 2 1.7057334e+18
-0.81900001 -9.3199997 7.809 29 0 3 1.7057334e+18
0.081 -10 7.7360001 28 0 0 1.7057334e+18
-0.152 -9.7600002 7.7540002 29 0 1 1.7057334e+18
-0.39199999 -9.5270004 7.7579999 29 0 2 1.7057334e+18
-0.62199998 -9.316 7.789 30 0 3 1.7057334e+18
0.315 -9.9099998 7.7020001 16 0 0 1.7057334e+18
0.067000002 -9.6999998 7.7249999 27 0 1 1.7057334e+18
-0.184 -9.5059996 7.744 32 0 2 1.7057334e+18
-0.42500001 -9.2939997 7.7550001 28 0 3 1.7057334e+18
0.542 -9.8059998 7.6589999 29 0 0 1.7057334e+18
0.285 -9.625 7.6880002 12 0 1 1.7057334e+18
0.022 -9.467 7.717 23 0 2 1.7057334e+18
-0.228 -9.2749996 7.7280002 30 0 3 1.7057334e+18
0.76700002 -9.7290001 7.6399999 30 0 0 1.7057334e+18
0.49900001 -9.5570002 7.658 32 0 1 1.7057334e+18
